ply
		format ascii 1.0
		element vertex 63991
		property float x
		property float y
		property float z
		property uchar red
		property uchar green
		property uchar blue
		end_header
-0.564807 -0.024027 1.852801 50 68 52
-0.562870 -0.024027 1.852801 57 80 62
-0.560933 -0.024027 1.852801 62 80 64
-0.558996 -0.024027 1.852801 56 69 52
-0.557059 -0.024027 1.852801 51 57 43
-0.555122 -0.024027 1.852801 53 53 41
-0.553185 -0.024027 1.852801 56 49 39
-0.551248 -0.024027 1.852801 56 43 34
-0.549311 -0.024027 1.852801 60 43 35
-0.550366 -0.024159 1.862926 58 39 32
-0.545438 -0.024027 1.852801 55 36 30
-0.543501 -0.024027 1.852801 53 34 28
-0.541564 -0.024027 1.852801 54 35 29
-0.539627 -0.024027 1.852801 53 36 29
-0.537690 -0.024027 1.852801 51 36 29
-0.538680 -0.024159 1.862926 52 35 28
-0.536733 -0.024159 1.862926 51 32 25
-0.534785 -0.024159 1.862926 53 34 27
-0.532838 -0.024159 1.862926 54 37 29
-0.530890 -0.024159 1.862926 54 40 31
-0.526068 -0.024027 1.852801 52 42 33
-0.524131 -0.024027 1.852801 50 43 33
-0.522194 -0.024027 1.852801 48 44 35
-0.520257 -0.024027 1.852801 44 44 34
-0.518320 -0.024027 1.852801 43 45 34
-0.516383 -0.024027 1.852801 40 43 32
-0.514446 -0.024027 1.852801 39 45 33
-0.509739 -0.023897 1.842786 41 47 33
-0.510573 -0.024027 1.852801 42 48 34
-0.508636 -0.024027 1.852801 45 51 37
-0.506699 -0.024027 1.852801 54 61 45
-0.504762 -0.024027 1.852801 62 74 54
-0.502825 -0.024027 1.852801 81 97 70
-0.500888 -0.024027 1.852801 85 104 74
-0.498951 -0.024027 1.852801 76 95 67
-0.497014 -0.024027 1.852801 52 68 42
-0.495077 -0.024027 1.852801 34 49 26
-0.493140 -0.024027 1.852801 32 45 25
-0.491203 -0.024027 1.852801 29 42 24
-0.497376 -0.024426 1.883511 22 33 17
-0.495406 -0.024426 1.883511 25 36 20
-0.493437 -0.024426 1.883511 29 37 22
-0.491468 -0.024426 1.883511 28 36 21
-0.489499 -0.024426 1.883511 30 39 22
-0.487530 -0.024426 1.883511 33 40 22
-0.485561 -0.024426 1.883511 38 46 25
-0.483592 -0.024426 1.883511 75 80 58
-0.481623 -0.024426 1.883511 120 134 101
-0.479654 -0.024426 1.883511 173 203 149
-0.477685 -0.024426 1.883511 186 225 162
-0.489990 -0.025263 1.948088 186 225 170
-0.487953 -0.025263 1.948088 167 204 153
-0.485916 -0.025263 1.948088 149 185 141
-0.492320 -0.025704 1.982066 131 165 130
-0.490248 -0.025704 1.982066 117 150 119
-0.488176 -0.025704 1.982066 79 109 83
-0.486103 -0.025704 1.982066 62 87 66
-0.489726 -0.026006 2.005385 45 68 50
-0.493435 -0.026316 2.029258 41 59 43
-0.491313 -0.026316 2.029258 39 56 40
-0.498086 -0.026794 2.066154 37 51 36
-0.495926 -0.026794 2.066154 39 51 37
-0.493766 -0.026794 2.066154 44 57 37
-0.491606 -0.026794 2.066154 50 63 37
-0.489446 -0.026794 2.066154 62 76 43
-0.478585 -0.026316 2.029258 87 101 68
-0.476463 -0.026316 2.029258 116 132 96
-0.474342 -0.026316 2.029258 142 160 122
-0.472220 -0.026316 2.029258 165 186 147
-0.470099 -0.026316 2.029258 190 213 171
-0.467977 -0.026316 2.029258 206 233 188
-0.460375 -0.026006 2.005385 215 244 196
-0.458279 -0.026006 2.005385 214 246 196
-0.456183 -0.026006 2.005385 213 248 194
-0.388716 -0.025704 1.982066 165 196 139
-0.386643 -0.025704 1.982066 163 193 139
-0.377979 -0.025263 1.948088 160 190 136
-0.375942 -0.025263 1.948088 158 186 135
-0.373906 -0.025263 1.948088 157 185 134
-0.371869 -0.025263 1.948088 156 184 135
-0.365654 -0.024978 1.926076 157 185 136
-0.363640 -0.024978 1.926076 158 184 136
-0.357586 -0.024698 1.904555 160 186 138
-0.355595 -0.024698 1.904555 164 191 140
-0.353604 -0.024698 1.904555 165 192 141
-0.359650 -0.025263 1.948088 161 189 140
-0.363851 -0.025704 1.982066 160 188 139
-0.355577 -0.025263 1.948088 159 188 140
-0.353540 -0.025263 1.948088 157 186 140
-0.357634 -0.025704 1.982066 152 181 137
-0.355562 -0.025704 1.982066 151 179 139
-0.353490 -0.025704 1.982066 141 168 133
-0.351418 -0.025704 1.982066 119 144 114
-0.349346 -0.025704 1.982066 88 112 86
-0.347274 -0.025704 1.982066 63 85 64
-0.339284 -0.025263 1.948088 50 68 52
-0.343130 -0.025704 1.982066 44 60 47
-0.341058 -0.025704 1.982066 41 54 44
-0.333174 -0.025263 1.948088 39 46 38
-0.327396 -0.024978 1.926076 38 43 37
-0.325383 -0.024978 1.926076 36 41 35
-0.327065 -0.025263 1.948088 36 41 35
-0.330697 -0.025704 1.982066 36 43 36
-0.328625 -0.025704 1.982066 38 45 37
-0.326553 -0.025704 1.982066 39 46 38
-0.305227 -0.027123 2.091506 64 80 54
-0.303040 -0.027123 2.091506 63 79 53
-0.300854 -0.027123 2.091506 62 78 52
-0.298667 -0.027123 2.091506 63 79 52
-0.296481 -0.027123 2.091506 66 82 53
-0.294294 -0.027123 2.091506 70 86 57
-0.292108 -0.027123 2.091506 75 92 60
-0.286407 -0.026794 2.066154 78 94 65
-0.279171 -0.026316 2.029258 87 101 75
-0.277050 -0.026316 2.029258 95 109 84
-0.271694 -0.026006 2.005385 108 122 97
-0.266463 -0.025704 1.982066 121 135 109
-0.256922 -0.024978 1.926076 133 147 121
-0.252060 -0.024698 1.904555 144 160 131
-0.248680 -0.024561 1.893975 157 173 144
-0.246700 -0.024561 1.893975 164 183 151
-0.244720 -0.024561 1.893975 183 203 166
-0.241399 -0.024426 1.883511 194 215 174
-0.239430 -0.024426 1.883511 209 230 187
-0.237461 -0.024426 1.883511 219 243 193
-0.235492 -0.024426 1.883511 224 248 196
-0.233523 -0.024426 1.883511 227 252 195
-0.231554 -0.024426 1.883511 231 255 198
-0.229584 -0.024426 1.883511 234 255 199
-0.227615 -0.024426 1.883511 228 254 193
-0.225646 -0.024426 1.883511 227 253 190
-0.223677 -0.024426 1.883511 225 251 188
-0.221708 -0.024426 1.883511 222 251 185
-0.219739 -0.024426 1.883511 221 250 184
-0.217770 -0.024426 1.883511 221 250 184
-0.215801 -0.024426 1.883511 222 251 185
-0.213832 -0.024426 1.883511 223 252 186
-0.210699 -0.024291 1.873162 228 254 189
-0.203705 -0.024159 1.862926 232 254 190
-0.201757 -0.024159 1.862926 235 253 191
-0.198724 -0.024027 1.852801 239 255 193
-0.196787 -0.024027 1.852801 242 255 197
-0.216045 -0.027460 2.117487 237 255 205
-0.208647 -0.026794 2.066154 235 255 202
-0.202800 -0.026316 2.029258 234 255 199
-0.200679 -0.026316 2.029258 234 255 198
-0.196221 -0.026006 2.005385 234 255 198
-0.194125 -0.026006 2.005385 235 255 197
-0.194314 -0.026316 2.029258 233 254 195
-0.192193 -0.026316 2.029258 234 255 196
-0.190072 -0.026316 2.029258 235 254 198
-0.187950 -0.026316 2.029258 237 254 200
-0.183643 -0.026006 2.005385 239 253 202
-0.183707 -0.026316 2.029258 240 252 204
-0.181586 -0.026316 2.029258 241 250 203
-0.179465 -0.026316 2.029258 239 251 201
-0.155620 -0.024561 1.893975 237 255 197
-0.152791 -0.024426 1.883511 239 255 199
-0.150822 -0.024426 1.883511 239 255 198
-0.148853 -0.024426 1.883511 238 255 199
-0.146077 -0.024291 1.873162 238 255 197
-0.144119 -0.024291 1.873162 238 255 199
-0.141384 -0.024159 1.862926 236 255 196
-0.139436 -0.024159 1.862926 235 255 195
-0.137489 -0.024159 1.862926 234 255 194
-0.135070 -0.024426 1.883511 233 255 193
-0.133101 -0.024426 1.883511 235 255 194
-0.131860 -0.024561 1.893975 235 255 196
-0.113960 -0.024978 1.926076 237 255 201
-0.111946 -0.024978 1.926076 237 255 199
-0.109933 -0.024978 1.926076 237 255 197
-0.107919 -0.024978 1.926076 237 255 197
-0.105906 -0.024978 1.926076 238 255 197
-0.103892 -0.024978 1.926076 244 255 204
-0.101878 -0.024978 1.926076 244 255 205
-0.099865 -0.024978 1.926076 244 255 205
-0.097851 -0.024978 1.926076 242 255 205
-0.096933 -0.025263 1.948088 244 255 207
-0.094897 -0.025263 1.948088 241 255 206
-0.094480 -0.025704 1.982066 239 255 206
-0.090823 -0.025263 1.948088 239 255 206
-0.088787 -0.025263 1.948088 239 252 206
-0.086750 -0.025263 1.948088 237 250 206
-0.066153 -0.024426 1.883511 231 251 198
-0.064541 -0.024561 1.893975 230 253 197
-0.062215 -0.024426 1.883511 228 254 193
-0.060246 -0.024426 1.883511 225 254 188
-0.058277 -0.024426 1.883511 222 253 183
-0.056308 -0.024426 1.883511 219 253 179
-0.054339 -0.024426 1.883511 223 255 181
-0.052370 -0.024426 1.883511 224 255 181
-0.050681 -0.024561 1.893975 224 254 180
-0.048701 -0.024561 1.893975 226 254 180
-0.046463 -0.024426 1.883511 227 253 182
-0.026101 -0.025704 1.982066 236 255 193
-0.024029 -0.025704 1.982066 233 255 188
-0.021580 -0.025263 1.948088 232 255 189
-0.018022 -0.026006 2.005385 231 255 191
-0.015926 -0.026006 2.005385 231 255 190
-0.013829 -0.026006 2.005385 228 255 188
-0.011733 -0.026006 2.005385 225 252 185
-0.009636 -0.026006 2.005385 224 251 182
-0.007630 -0.026316 2.029258 220 250 176
-0.005508 -0.026316 2.029258 218 250 174
-0.003387 -0.026316 2.029258 216 248 173
-0.001265 -0.026316 2.029258 215 247 171
0.000856 -0.026316 2.029258 214 246 171
0.002978 -0.026316 2.029258 214 246 170
0.005099 -0.026316 2.029258 214 246 171
0.007220 -0.026316 2.029258 214 246 170
0.009342 -0.026316 2.029258 210 242 167
0.011463 -0.026316 2.029258 208 240 164
0.013585 -0.026316 2.029258 204 236 161
0.015706 -0.026316 2.029258 200 232 156
0.017827 -0.026316 2.029258 195 227 152
0.019949 -0.026316 2.029258 189 221 145
0.022070 -0.026316 2.029258 182 214 139
0.024192 -0.026316 2.029258 177 208 138
0.026313 -0.026316 2.029258 155 184 126
0.028435 -0.026316 2.029258 145 173 122
0.030556 -0.026316 2.029258 130 158 107
0.032677 -0.026316 2.029258 120 148 97
0.034799 -0.026316 2.029258 117 145 94
0.036920 -0.026316 2.029258 120 148 97
0.039042 -0.026316 2.029258 126 154 105
0.041163 -0.026316 2.029258 129 157 108
0.043284 -0.026316 2.029258 155 183 135
0.045406 -0.026316 2.029258 169 197 149
0.047527 -0.026316 2.029258 190 217 172
0.049649 -0.026316 2.029258 207 236 190
0.051770 -0.026316 2.029258 218 245 200
0.053892 -0.026316 2.029258 224 253 207
0.056013 -0.026316 2.029258 231 255 213
0.058134 -0.026316 2.029258 236 255 217
0.060256 -0.026316 2.029258 241 255 215
0.063511 -0.026794 2.066154 241 255 213
0.065671 -0.026794 2.066154 239 255 211
0.067831 -0.026794 2.066154 232 252 203
0.069991 -0.026794 2.066154 218 241 189
0.072151 -0.026794 2.066154 200 225 170
0.074311 -0.026794 2.066154 178 205 150
0.076471 -0.026794 2.066154 165 194 136
0.078631 -0.026794 2.066154 147 178 119
0.080791 -0.026794 2.066154 146 177 118
0.082951 -0.026794 2.066154 146 177 118
0.085111 -0.026794 2.066154 146 177 118
0.087271 -0.026794 2.066154 148 179 120
0.089431 -0.026794 2.066154 150 181 124
0.092715 -0.027123 2.091506 152 181 125
0.094902 -0.027123 2.091506 153 182 126
0.097088 -0.027123 2.091506 150 179 125
0.099275 -0.027123 2.091506 143 172 118
0.101461 -0.027123 2.091506 139 167 116
0.103648 -0.027123 2.091506 136 166 114
0.107149 -0.027460 2.117487 129 161 111
0.111439 -0.027981 2.157693 117 149 99
0.113695 -0.027981 2.157693 106 140 90
0.115950 -0.027981 2.157693 100 137 86
0.118206 -0.027981 2.157693 116 152 104
0.122006 -0.028340 2.185355 131 169 120
0.124291 -0.028340 2.185355 152 191 144
0.126575 -0.028340 2.185355 165 207 159
0.128860 -0.028340 2.185355 170 212 166
0.131144 -0.028340 2.185355 167 210 164
0.135162 -0.028708 2.213737 165 208 162
0.137476 -0.028708 2.213737 163 209 160
0.786050 -0.040560 3.127664 157 199 153
0.789320 -0.040560 3.127664 158 200 154
0.781519 -0.039829 3.071310 161 203 157
0.750905 -0.038112 2.938926 156 198 152
0.753978 -0.038112 2.938926 156 198 152
0.744219 -0.037466 2.889114 156 198 152
0.728713 -0.036537 2.817483 156 198 152
0.731658 -0.036537 2.817483 157 199 153
0.734604 -0.036537 2.817483 158 200 154
0.737549 -0.036537 2.817483 159 201 155
1.070302 -0.034008 2.622426 130 171 129
1.056785 -0.033493 2.582693 128 169 129
1.059485 -0.033493 2.582693 128 169 129
1.062185 -0.033493 2.582693 129 170 130
1.064885 -0.033493 2.582693 129 170 130
1.067585 -0.033493 2.582693 128 169 129
1.070285 -0.033493 2.582693 130 168 131
1.049141 -0.032748 2.525299 130 167 133
1.075685 -0.033493 2.582693 129 169 134
1.078385 -0.033493 2.582693 129 169 134
1.097717 -0.034008 2.622426 129 169 132
1.083785 -0.033493 2.582693 128 168 131
1.086485 -0.033493 2.582693 126 168 130
1.089185 -0.033493 2.582693 125 167 129
1.091885 -0.033493 2.582693 129 171 131
1.111424 -0.034008 2.622426 131 173 133
1.114166 -0.034008 2.622426 133 178 135
1.116907 -0.034008 2.622426 137 182 139
1.102685 -0.033493 2.582693 140 185 142
1.105385 -0.033493 2.582693 144 189 146
1.108085 -0.033493 2.582693 145 192 148
1.110785 -0.033493 2.582693 146 193 149
1.088740 -0.032748 2.525299 146 188 148
1.091380 -0.032748 2.525299 147 189 151
1.094020 -0.032748 2.525299 147 189 151
1.080651 -0.032270 2.488434 148 190 152
1.067666 -0.031806 2.452629 148 190 152
1.070230 -0.031806 2.452629 147 189 151
1.135281 -0.032270 2.488434 150 192 152
1.137883 -0.032270 2.488434 149 191 151
1.157380 -0.032748 2.525299 147 189 149
1.143086 -0.032270 2.488434 145 187 147
1.145687 -0.032270 2.488434 142 184 144
1.392403 -0.030281 2.335037 136 180 145
1.414217 -0.030702 2.367468 139 183 148
1.397286 -0.030281 2.335037 144 186 150
1.399727 -0.030281 2.335037 143 185 149
1.373936 -0.029671 2.288023 142 184 148
1.378720 -0.029671 2.288023 144 186 150
1.381112 -0.029671 2.288023 143 185 149
-0.618529 -0.022211 1.862926 187 245 186
-0.616582 -0.022211 1.862926 187 245 186
-0.614634 -0.022211 1.862926 184 241 186
-0.612687 -0.022211 1.862926 186 243 190
-0.607420 -0.022090 1.852801 187 241 191
-0.608792 -0.022211 1.862926 186 239 193
-0.606844 -0.022211 1.862926 184 235 194
-0.604897 -0.022211 1.862926 164 214 176
-0.602949 -0.022211 1.862926 119 167 129
-0.601001 -0.022211 1.862926 81 118 85
-0.599054 -0.022211 1.862926 60 78 56
-0.597106 -0.022211 1.862926 58 65 49
-0.595159 -0.022211 1.862926 50 56 42
-0.593211 -0.022211 1.862926 46 52 40
-0.588050 -0.022090 1.852801 42 48 38
-0.586113 -0.022090 1.852801 37 42 35
-0.584177 -0.022090 1.852801 35 40 34
-0.582240 -0.022090 1.852801 37 42 36
-0.571386 -0.021971 1.842786 37 42 36
-0.569460 -0.021971 1.842786 39 44 37
-0.567533 -0.021971 1.842786 37 42 35
-0.565607 -0.021971 1.842786 37 43 33
-0.563681 -0.021971 1.842786 38 48 37
-0.561754 -0.021971 1.842786 35 49 36
-0.562870 -0.022090 1.852801 39 55 42
-0.560933 -0.022090 1.852801 42 56 43
-0.558996 -0.022090 1.852801 41 51 40
-0.557059 -0.022090 1.852801 42 48 38
-0.555122 -0.022090 1.852801 46 47 39
-0.553185 -0.022090 1.852801 48 45 38
-0.551248 -0.022090 1.852801 46 39 33
-0.549311 -0.022090 1.852801 51 42 37
-0.550366 -0.022211 1.862926 50 39 35
-0.545438 -0.022090 1.852801 48 37 33
-0.543501 -0.022090 1.852801 48 37 33
-0.541564 -0.022090 1.852801 49 38 36
-0.539627 -0.022090 1.852801 49 40 35
-0.537690 -0.022090 1.852801 48 38 36
-0.535753 -0.022090 1.852801 46 37 32
-0.536733 -0.022211 1.862926 46 36 27
-0.534785 -0.022211 1.862926 47 37 28
-0.532838 -0.022211 1.862926 49 39 30
-0.530890 -0.022211 1.862926 50 43 35
-0.528943 -0.022211 1.862926 49 45 36
-0.524131 -0.022090 1.852801 49 46 39
-0.522194 -0.022090 1.852801 47 48 42
-0.520257 -0.022090 1.852801 46 49 42
-0.518320 -0.022090 1.852801 44 47 40
-0.516383 -0.022090 1.852801 41 47 37
-0.514446 -0.022090 1.852801 41 47 37
-0.512509 -0.022090 1.852801 41 47 35
-0.510573 -0.022090 1.852801 40 46 34
-0.508636 -0.022090 1.852801 43 49 35
-0.506699 -0.022090 1.852801 53 60 44
-0.504762 -0.022090 1.852801 64 73 54
-0.502825 -0.022090 1.852801 83 97 72
-0.500888 -0.022090 1.852801 88 104 77
-0.498951 -0.022090 1.852801 78 94 68
-0.497014 -0.022090 1.852801 52 66 43
-0.495077 -0.022090 1.852801 33 46 26
-0.493140 -0.022090 1.852801 32 43 26
-0.491203 -0.022090 1.852801 32 43 27
-0.497376 -0.022456 1.883511 28 36 21
-0.495406 -0.022456 1.883511 29 37 24
-0.493437 -0.022456 1.883511 35 41 29
-0.491468 -0.022456 1.883511 38 41 30
-0.489499 -0.022456 1.883511 40 44 30
-0.487530 -0.022456 1.883511 42 44 30
-0.485561 -0.022456 1.883511 45 47 33
-0.483592 -0.022456 1.883511 77 78 62
-0.481623 -0.022456 1.883511 119 128 101
-0.479654 -0.022456 1.883511 170 194 146
-0.477685 -0.022456 1.883511 172 203 146
-0.489990 -0.023226 1.948088 150 182 133
-0.487953 -0.023226 1.948088 128 159 115
-0.485916 -0.023226 1.948088 108 138 100
-0.483880 -0.023226 1.948088 91 120 89
-0.490248 -0.023632 1.982066 81 107 82
-0.488176 -0.023632 1.982066 59 83 61
-0.486103 -0.023632 1.982066 49 70 51
-0.484031 -0.023632 1.982066 42 60 44
-0.487629 -0.023910 2.005385 41 58 42
-0.491313 -0.024194 2.029258 44 58 41
-0.489192 -0.024194 2.029258 47 60 43
-0.487070 -0.024194 2.029258 55 66 49
-0.484949 -0.024194 2.029258 64 76 52
-0.491606 -0.024634 2.066154 98 113 80
-0.489446 -0.024634 2.066154 117 133 94
-0.478585 -0.024194 2.029258 141 159 117
-0.476463 -0.024194 2.029258 165 183 141
-0.474342 -0.024194 2.029258 185 206 163
-0.472220 -0.024194 2.029258 200 223 179
-0.470099 -0.024194 2.029258 206 232 185
-0.467977 -0.024194 2.029258 206 234 186
-0.465856 -0.024194 2.029258 198 230 180
-0.463735 -0.024194 2.029258 197 231 180
-0.461613 -0.024194 2.029258 194 231 177
-0.389078 -0.022456 1.883511 174 205 148
-0.384982 -0.022333 1.873162 172 205 148
-0.397482 -0.023910 2.005385 164 195 138
-0.390788 -0.023632 1.982066 165 195 141
-0.388716 -0.023632 1.982066 158 188 134
-0.386643 -0.023632 1.982066 155 183 132
-0.377979 -0.023226 1.948088 149 177 126
-0.371694 -0.022964 1.926076 144 172 123
-0.373906 -0.023226 1.948088 143 171 123
-0.371869 -0.023226 1.948088 146 172 125
-0.365654 -0.022964 1.926076 150 176 129
-0.359577 -0.022707 1.904555 155 178 132
-0.357586 -0.022707 1.904555 162 185 139
-0.353619 -0.022581 1.893975 168 191 145
-0.359650 -0.023226 1.948088 170 196 149
-0.363851 -0.023632 1.982066 170 196 149
-0.361778 -0.023632 1.982066 169 197 149
-0.357634 -0.023632 1.982066 159 188 144
-0.355562 -0.023632 1.982066 151 179 138
-0.353490 -0.023632 1.982066 140 168 130
-0.351418 -0.023632 1.982066 122 148 113
-0.349346 -0.023632 1.982066 101 126 96
-0.341321 -0.023226 1.948088 86 109 83
-0.339284 -0.023226 1.948088 76 98 75
-0.337247 -0.023226 1.948088 71 90 70
-0.341058 -0.023632 1.982066 70 84 67
-0.329410 -0.022964 1.926076 69 82 64
-0.327396 -0.022964 1.926076 68 79 62
-0.321747 -0.022707 1.904555 65 76 59
-0.323369 -0.022964 1.926076 63 74 57
-0.321355 -0.022964 1.926076 62 75 57
-0.328625 -0.023632 1.982066 63 76 58
-0.330395 -0.023910 2.005385 65 78 58
-0.305227 -0.024936 2.091506 119 140 107
-0.303040 -0.024936 2.091506 119 140 107
-0.300854 -0.024936 2.091506 121 142 109
-0.298667 -0.024936 2.091506 124 146 110
-0.296481 -0.024936 2.091506 130 152 114
-0.294294 -0.024936 2.091506 138 160 121
-0.288567 -0.024634 2.066154 146 169 127
-0.286407 -0.024634 2.066154 150 172 133
-0.279171 -0.024194 2.029258 168 188 151
-0.277050 -0.024194 2.029258 175 195 160
-0.271694 -0.023910 2.005385 184 204 169
-0.266463 -0.023632 1.982066 194 214 179
-0.256922 -0.022964 1.926076 202 222 185
-0.252060 -0.022707 1.904555 209 229 192
-0.248680 -0.022581 1.893975 217 238 199
-0.246700 -0.022581 1.893975 222 243 202
-0.244720 -0.022581 1.893975 215 236 193
-0.242740 -0.022581 1.893975 220 242 195
-0.240760 -0.022581 1.893975 225 249 197
-0.238780 -0.022581 1.893975 228 253 198
-0.235492 -0.022456 1.883511 227 252 194
-0.233523 -0.022456 1.883511 226 252 189
-0.231554 -0.022456 1.883511 225 251 186
-0.229584 -0.022456 1.883511 226 252 187
-0.227615 -0.022456 1.883511 231 255 194
-0.225646 -0.022456 1.883511 231 255 194
-0.223677 -0.022456 1.883511 230 255 193
-0.221708 -0.022456 1.883511 229 255 190
-0.219739 -0.022456 1.883511 229 255 192
-0.217770 -0.022456 1.883511 228 255 193
-0.215801 -0.022456 1.883511 228 255 193
-0.213832 -0.022456 1.883511 231 255 194
-0.210699 -0.022333 1.873162 233 255 196
-0.203705 -0.022211 1.862926 235 255 192
-0.201757 -0.022211 1.862926 238 253 194
-0.210807 -0.024634 2.066154 236 252 205
-0.204922 -0.024194 2.029258 234 252 202
-0.202800 -0.024194 2.029258 234 252 200
-0.200679 -0.024194 2.029258 233 253 200
-0.196221 -0.023910 2.005385 233 254 198
-0.194125 -0.023910 2.005385 233 254 198
-0.194314 -0.024194 2.029258 232 253 197
-0.192193 -0.024194 2.029258 234 253 198
-0.187835 -0.023910 2.005385 236 253 201
-0.187950 -0.024194 2.029258 239 253 202
-0.185829 -0.024194 2.029258 241 253 207
-0.181546 -0.023910 2.005385 242 251 206
-0.179450 -0.023910 2.005385 241 250 207
-0.179465 -0.024194 2.029258 239 251 203
-0.155620 -0.022581 1.893975 234 254 191
-0.152791 -0.022456 1.883511 236 255 195
-0.150822 -0.022456 1.883511 237 255 195
-0.148853 -0.022456 1.883511 236 255 196
-0.146077 -0.022333 1.873162 234 255 194
-0.143331 -0.022211 1.862926 233 255 195
-0.140616 -0.022090 1.852801 233 255 195
-0.138679 -0.022090 1.852801 232 255 194
-0.136742 -0.022090 1.852801 230 255 193
-0.131132 -0.022456 1.883511 233 255 195
-0.115973 -0.022964 1.926076 239 255 206
-0.112686 -0.022707 1.904555 240 255 205
-0.111946 -0.022964 1.926076 240 255 204
-0.109933 -0.022964 1.926076 240 255 204
-0.107919 -0.022964 1.926076 239 255 201
-0.105906 -0.022964 1.926076 238 255 202
-0.103892 -0.022964 1.926076 238 255 201
-0.101878 -0.022964 1.926076 237 254 200
-0.099865 -0.022964 1.926076 236 253 199
-0.097851 -0.022964 1.926076 233 251 199
-0.096933 -0.023226 1.948088 230 248 196
-0.094897 -0.023226 1.948088 228 246 196
-0.092860 -0.023226 1.948088 224 244 193
-0.090823 -0.023226 1.948088 223 243 194
-0.088787 -0.023226 1.948088 213 230 185
-0.086750 -0.023226 1.948088 207 224 179
-0.066521 -0.022581 1.893975 212 230 180
-0.064541 -0.022581 1.893975 203 226 170
-0.062561 -0.022581 1.893975 201 227 166
-0.060581 -0.022581 1.893975 204 235 168
-0.058601 -0.022581 1.893975 211 244 173
-0.056621 -0.022581 1.893975 214 251 174
-0.054339 -0.022456 1.883511 222 255 179
-0.052370 -0.022456 1.883511 222 255 179
-0.050681 -0.022581 1.893975 223 255 180
-0.048432 -0.022456 1.883511 227 255 181
-0.046463 -0.022456 1.883511 228 254 183
-0.042678 -0.023632 1.982066 233 252 186
-0.032697 -0.023910 2.005385 234 255 187
-0.030601 -0.023910 2.005385 233 255 188
-0.028173 -0.023632 1.982066 235 255 192
-0.026101 -0.023632 1.982066 235 255 193
-0.024029 -0.023632 1.982066 232 255 189
-0.021957 -0.023632 1.982066 231 255 189
-0.019885 -0.023632 1.982066 231 255 191
-0.018022 -0.023910 2.005385 227 255 189
-0.015926 -0.023910 2.005385 226 253 186
-0.013829 -0.023910 2.005385 220 249 182
-0.011733 -0.023910 2.005385 218 245 178
-0.009636 -0.023910 2.005385 214 243 176
-0.007630 -0.024194 2.029258 211 242 172
-0.005508 -0.024194 2.029258 210 241 171
-0.003387 -0.024194 2.029258 209 240 170
-0.001265 -0.024194 2.029258 207 238 168
0.000856 -0.024194 2.029258 205 236 166
0.002978 -0.024194 2.029258 203 234 164
0.005099 -0.024194 2.029258 202 233 163
0.007220 -0.024194 2.029258 201 232 162
0.009342 -0.024194 2.029258 192 223 153
0.011463 -0.024194 2.029258 189 220 150
0.013585 -0.024194 2.029258 184 215 145
0.015706 -0.024194 2.029258 175 206 136
0.017827 -0.024194 2.029258 163 194 124
0.019949 -0.024194 2.029258 150 181 111
0.022070 -0.024194 2.029258 137 168 98
0.024192 -0.024194 2.029258 130 161 94
0.026313 -0.024194 2.029258 115 144 88
0.028435 -0.024194 2.029258 113 141 90
0.030556 -0.024194 2.029258 112 140 91
0.032677 -0.024194 2.029258 118 146 95
0.034799 -0.024194 2.029258 132 160 109
0.036920 -0.024194 2.029258 151 179 128
0.039042 -0.024194 2.029258 170 198 149
0.041163 -0.024194 2.029258 181 209 160
0.043284 -0.024194 2.029258 200 226 178
0.045406 -0.024194 2.029258 207 235 186
0.047527 -0.024194 2.029258 220 246 198
0.049649 -0.024194 2.029258 227 255 206
0.051770 -0.024194 2.029258 231 255 210
0.053892 -0.024194 2.029258 231 255 209
0.056013 -0.024194 2.029258 231 255 210
0.058134 -0.024194 2.029258 233 255 209
0.060256 -0.024194 2.029258 238 255 211
0.062377 -0.024194 2.029258 229 249 200
0.064499 -0.024194 2.029258 214 234 185
0.067831 -0.024634 2.066154 195 218 166
0.069991 -0.024634 2.066154 180 205 150
0.072151 -0.024634 2.066154 165 193 135
0.074311 -0.024634 2.066154 153 182 124
0.076471 -0.024634 2.066154 146 177 118
0.078631 -0.024634 2.066154 145 179 119
0.080791 -0.024634 2.066154 147 181 121
0.082951 -0.024634 2.066154 149 183 123
0.085111 -0.024634 2.066154 149 182 125
0.087271 -0.024634 2.066154 149 180 123
0.089431 -0.024634 2.066154 147 177 123
0.092715 -0.024936 2.091506 147 175 124
0.094902 -0.024936 2.091506 147 175 124
0.097088 -0.024936 2.091506 143 172 118
0.099275 -0.024936 2.091506 136 165 111
0.101461 -0.024936 2.091506 129 157 106
0.104935 -0.025246 2.117487 124 154 102
0.107149 -0.025246 2.117487 118 148 98
0.111439 -0.025725 2.157693 110 142 92
0.113695 -0.025725 2.157693 106 140 90
0.115950 -0.025725 2.157693 105 142 91
0.118206 -0.025725 2.157693 130 168 119
0.122006 -0.026055 2.185355 145 185 135
0.124291 -0.026055 2.185355 162 204 156
0.126575 -0.026055 2.185355 171 215 166
0.128860 -0.026055 2.185355 171 214 168
0.131144 -0.026055 2.185355 165 211 164
0.135162 -0.026394 2.213737 164 210 164
0.750905 -0.035040 2.938926 156 198 152
0.753978 -0.035040 2.938926 156 198 152
0.744219 -0.034446 2.889114 156 198 152
0.728713 -0.033592 2.817483 156 198 152
0.731658 -0.033592 2.817483 157 199 153
0.734604 -0.033592 2.817483 158 200 154
0.737549 -0.033592 2.817483 159 201 155
0.740494 -0.033592 2.817483 160 201 157
0.806136 -0.029242 2.452629 153 196 151
0.808700 -0.029242 2.452629 152 195 150
0.811264 -0.029242 2.452629 146 189 146
1.070302 -0.031266 2.622426 126 167 127
1.056785 -0.030793 2.582693 124 165 125
1.035941 -0.030108 2.525299 125 166 126
1.038581 -0.030108 2.525299 125 166 126
1.041221 -0.030108 2.525299 125 165 128
1.067585 -0.030793 2.582693 125 165 128
1.070285 -0.030793 2.582693 132 169 135
1.072985 -0.030793 2.582693 133 170 136
1.075685 -0.030793 2.582693 133 173 138
1.105385 -0.030793 2.582693 143 188 145
1.108085 -0.030793 2.582693 143 190 146
1.088740 -0.030108 2.525299 146 188 148
1.091380 -0.030108 2.525299 146 188 150
1.078049 -0.029669 2.488434 146 188 150
1.080651 -0.029669 2.488434 146 188 150
1.067666 -0.029242 2.452629 144 186 148
1.070230 -0.029242 2.452629 143 185 147
1.143086 -0.029669 2.488434 136 178 138
1.414217 -0.028227 2.367468 134 178 143
1.416692 -0.028227 2.367468 141 183 147
1.399727 -0.027840 2.335037 140 182 146
1.402168 -0.027840 2.335037 139 181 145
-0.618529 -0.020264 1.862926 186 244 185
-0.616582 -0.020264 1.862926 185 245 185
-0.614634 -0.020264 1.862926 184 243 187
-0.609357 -0.020153 1.852801 184 243 189
-0.607420 -0.020153 1.852801 185 241 192
-0.608792 -0.020264 1.862926 187 240 194
-0.606844 -0.020264 1.862926 184 235 194
-0.604897 -0.020264 1.862926 162 210 172
-0.602949 -0.020264 1.862926 113 159 123
-0.601001 -0.020264 1.862926 75 112 81
-0.599054 -0.020264 1.862926 57 75 53
-0.597106 -0.020264 1.862926 56 63 47
-0.595159 -0.020264 1.862926 49 55 41
-0.593211 -0.020264 1.862926 46 52 40
-0.588050 -0.020153 1.852801 41 49 38
-0.586113 -0.020153 1.852801 35 42 34
-0.584177 -0.020153 1.852801 32 39 32
-0.582240 -0.020153 1.852801 33 40 33
-0.580303 -0.020153 1.852801 36 42 38
-0.578366 -0.020153 1.852801 32 38 34
-0.571386 -0.020044 1.842786 35 42 35
-0.569460 -0.020044 1.842786 38 45 37
-0.567533 -0.020044 1.842786 38 45 37
-0.565607 -0.020044 1.842786 37 45 34
-0.563681 -0.020044 1.842786 38 46 35
-0.564807 -0.020153 1.852801 36 43 35
-0.562870 -0.020153 1.852801 38 45 37
-0.560933 -0.020153 1.852801 39 46 38
-0.558996 -0.020153 1.852801 39 44 37
-0.560103 -0.020264 1.862926 43 46 39
-0.558156 -0.020264 1.862926 45 48 41
-0.556208 -0.020264 1.862926 46 45 40
-0.551248 -0.020153 1.852801 42 41 36
-0.552313 -0.020264 1.862926 41 38 33
-0.548418 -0.020264 1.862926 42 39 34
-0.546471 -0.020264 1.862926 44 41 36
-0.544523 -0.020264 1.862926 45 41 38
-0.542575 -0.020264 1.862926 45 42 37
-0.540628 -0.020264 1.862926 42 38 35
-0.538680 -0.020264 1.862926 39 36 31
-0.536733 -0.020264 1.862926 39 35 26
-0.534785 -0.020264 1.862926 39 37 25
-0.532838 -0.020264 1.862926 41 38 29
-0.530890 -0.020264 1.862926 41 41 33
-0.528943 -0.020264 1.862926 42 43 37
-0.524131 -0.020153 1.852801 42 45 38
-0.522194 -0.020153 1.852801 41 46 40
-0.520257 -0.020153 1.852801 41 48 41
-0.518320 -0.020153 1.852801 38 45 38
-0.516383 -0.020153 1.852801 38 45 38
-0.514446 -0.020153 1.852801 40 47 39
-0.512509 -0.020153 1.852801 40 48 37
-0.510573 -0.020153 1.852801 39 45 33
-0.508636 -0.020153 1.852801 39 45 31
-0.506699 -0.020153 1.852801 51 55 40
-0.504762 -0.020153 1.852801 61 68 50
-0.502825 -0.020153 1.852801 79 91 69
-0.500888 -0.020153 1.852801 86 100 77
-0.498951 -0.020153 1.852801 78 92 69
-0.497014 -0.020153 1.852801 53 65 45
-0.495077 -0.020153 1.852801 34 45 28
-0.494643 -0.020375 1.873162 29 35 23
-0.495406 -0.020487 1.883511 31 34 25
-0.490726 -0.020375 1.873162 37 40 31
-0.488768 -0.020375 1.873162 39 40 32
-0.489499 -0.020487 1.883511 39 41 30
-0.487530 -0.020487 1.883511 41 41 31
-0.485561 -0.020487 1.883511 42 42 32
-0.483592 -0.020487 1.883511 69 67 55
-0.481623 -0.020487 1.883511 105 108 89
-0.482319 -0.020601 1.893975 137 153 116
-0.480339 -0.020601 1.893975 130 153 107
-0.489990 -0.021190 1.948088 103 128 89
-0.487953 -0.021190 1.948088 88 112 78
-0.485916 -0.021190 1.948088 74 97 68
-0.483880 -0.021190 1.948088 59 82 56
-0.481843 -0.021190 1.948088 47 69 48
-0.479807 -0.021190 1.948088 48 67 48
-0.486103 -0.021559 1.982066 40 59 40
-0.484031 -0.021559 1.982066 34 51 32
-0.481959 -0.021559 1.982066 38 53 32
-0.491313 -0.022073 2.029258 52 64 42
-0.498086 -0.022474 2.066154 75 85 61
-0.495926 -0.022474 2.066154 101 111 86
-0.493766 -0.022474 2.066154 119 133 100
-0.491606 -0.022474 2.066154 154 172 130
-0.489446 -0.022474 2.066154 168 190 141
-0.487286 -0.022474 2.066154 184 208 158
-0.476463 -0.022073 2.029258 194 218 168
-0.482966 -0.022474 2.066154 200 227 176
-0.480806 -0.022474 2.066154 205 233 182
-0.478646 -0.022474 2.066154 206 234 183
-0.476486 -0.022474 2.066154 200 230 178
-0.474326 -0.022474 2.066154 192 225 172
-0.463735 -0.022073 2.029258 190 225 171
-0.391047 -0.020487 1.883511 171 201 147
-0.389078 -0.020487 1.883511 171 200 146
-0.384982 -0.020375 1.873162 170 201 144
-0.383023 -0.020375 1.873162 166 197 138
-0.390788 -0.021559 1.982066 158 186 135
-0.388716 -0.021559 1.982066 151 179 128
-0.386643 -0.021559 1.982066 144 170 122
-0.377979 -0.021190 1.948088 132 158 111
-0.371694 -0.020950 1.926076 123 149 102
-0.369681 -0.020950 1.926076 119 145 100
-0.367667 -0.020950 1.926076 124 147 103
-0.365654 -0.020950 1.926076 130 153 109
-0.359577 -0.020716 1.904555 134 157 115
-0.355599 -0.020601 1.893975 145 163 123
-0.353619 -0.020601 1.893975 153 171 131
-0.351639 -0.020601 1.893975 159 180 137
-0.363851 -0.021559 1.982066 164 190 145
-0.361778 -0.021559 1.982066 166 193 148
-0.357634 -0.021559 1.982066 160 187 144
-0.355562 -0.021559 1.982066 149 177 136
-0.353490 -0.021559 1.982066 139 167 127
-0.351418 -0.021559 1.982066 126 152 115
-0.343357 -0.021190 1.948088 114 140 105
-0.341321 -0.021190 1.948088 106 129 100
-0.339284 -0.021190 1.948088 98 121 93
-0.337247 -0.021190 1.948088 96 116 91
-0.335211 -0.021190 1.948088 95 113 87
-0.329410 -0.020950 1.926076 99 115 86
-0.327396 -0.020950 1.926076 98 115 83
-0.325383 -0.020950 1.926076 97 114 82
-0.323369 -0.020950 1.926076 96 113 81
-0.321355 -0.020950 1.926076 94 113 81
-0.328625 -0.021559 1.982066 96 115 83
-0.326553 -0.021559 1.982066 98 119 86
-0.328298 -0.021813 2.005385 100 122 86
-0.325777 -0.023771 2.185355 162 189 146
-0.319397 -0.023470 2.157693 165 192 151
-0.311232 -0.023032 2.117487 167 194 153
-0.305227 -0.022750 2.091506 174 201 160
-0.303040 -0.022750 2.091506 175 202 159
-0.300854 -0.022750 2.091506 177 204 161
-0.298667 -0.022750 2.091506 181 208 163
-0.296481 -0.022750 2.091506 188 216 168
-0.294294 -0.022750 2.091506 195 223 174
-0.288567 -0.022474 2.066154 202 230 179
-0.286407 -0.022474 2.066154 207 235 186
-0.279171 -0.022073 2.029258 211 237 190
-0.277050 -0.022073 2.029258 215 241 194
-0.271694 -0.021813 2.005385 221 244 198
-0.266463 -0.021559 1.982066 225 248 202
-0.259858 -0.021190 1.948088 227 250 204
-0.254908 -0.020950 1.926076 228 251 205
-0.250069 -0.020716 1.904555 230 253 207
-0.246700 -0.020601 1.893975 231 255 207
-0.244720 -0.020601 1.893975 228 252 202
-0.242740 -0.020601 1.893975 226 251 196
-0.240760 -0.020601 1.893975 226 251 193
-0.238780 -0.020601 1.893975 228 254 193
-0.235492 -0.020487 1.883511 231 255 191
-0.233523 -0.020487 1.883511 232 255 191
-0.231554 -0.020487 1.883511 230 255 187
-0.229584 -0.020487 1.883511 227 252 184
-0.227615 -0.020487 1.883511 233 255 195
-0.225646 -0.020487 1.883511 233 255 197
-0.223677 -0.020487 1.883511 232 255 196
-0.221708 -0.020487 1.883511 230 255 193
-0.219739 -0.020487 1.883511 230 255 195
-0.217770 -0.020487 1.883511 230 255 195
-0.201757 -0.020264 1.862926 237 250 194
-0.210807 -0.022474 2.066154 237 250 206
-0.208647 -0.022474 2.066154 235 251 204
-0.202800 -0.022073 2.029258 234 250 203
-0.200679 -0.022073 2.029258 234 252 202
-0.196221 -0.021813 2.005385 234 252 202
-0.194125 -0.021813 2.005385 234 252 202
-0.192028 -0.021813 2.005385 234 252 202
-0.192193 -0.022073 2.029258 236 252 203
-0.187835 -0.021813 2.005385 240 253 207
-0.185739 -0.021813 2.005385 242 254 208
-0.183643 -0.021813 2.005385 244 252 211
-0.181546 -0.021813 2.005385 244 251 210
-0.155620 -0.020601 1.893975 229 254 188
-0.152791 -0.020487 1.883511 231 255 191
-0.150822 -0.020487 1.883511 232 255 191
-0.148853 -0.020487 1.883511 232 255 192
-0.146077 -0.020375 1.873162 231 255 191
-0.143331 -0.020264 1.862926 230 255 191
-0.140616 -0.020153 1.852801 230 255 191
-0.138679 -0.020153 1.852801 229 255 190
-0.136742 -0.020153 1.852801 226 255 189
-0.134805 -0.020153 1.852801 225 254 188
-0.131132 -0.020487 1.883511 227 254 187
-0.129163 -0.020487 1.883511 225 251 186
-0.127900 -0.020601 1.893975 226 252 189
-0.115973 -0.020950 1.926076 238 255 209
-0.113960 -0.020950 1.926076 239 255 210
-0.111946 -0.020950 1.926076 239 255 208
-0.109933 -0.020950 1.926076 237 255 206
-0.107919 -0.020950 1.926076 235 255 202
-0.105906 -0.020950 1.926076 235 255 200
-0.103892 -0.020950 1.926076 234 252 200
-0.101878 -0.020950 1.926076 230 248 196
-0.099865 -0.020950 1.926076 223 241 189
-0.097851 -0.020950 1.926076 213 233 182
-0.096933 -0.021190 1.948088 202 225 173
-0.094897 -0.021190 1.948088 194 216 167
-0.092860 -0.021190 1.948088 188 212 162
-0.090823 -0.021190 1.948088 185 209 161
-0.087784 -0.020950 1.926076 172 194 147
-0.068501 -0.020601 1.893975 179 196 152
-0.066521 -0.020601 1.893975 175 193 145
-0.064541 -0.020601 1.893975 163 186 132
-0.062561 -0.020601 1.893975 162 190 129
-0.060581 -0.020601 1.893975 180 211 144
-0.058601 -0.020601 1.893975 201 237 163
-0.056621 -0.020601 1.893975 215 253 176
-0.054641 -0.020601 1.893975 220 255 179
-0.052661 -0.020601 1.893975 220 255 177
-0.050681 -0.020601 1.893975 224 255 180
-0.048432 -0.020487 1.883511 225 255 181
-0.046463 -0.020487 1.883511 229 255 184
-0.044750 -0.021559 1.982066 233 252 188
-0.042678 -0.021559 1.982066 232 253 186
-0.039451 -0.022073 2.029258 229 255 181
-0.037329 -0.022073 2.029258 229 255 182
-0.035208 -0.022073 2.029258 229 255 182
-0.033087 -0.022073 2.029258 230 255 183
-0.030601 -0.021813 2.005385 231 255 185
-0.028504 -0.021813 2.005385 232 255 188
-0.026408 -0.021813 2.005385 231 255 189
-0.024312 -0.021813 2.005385 227 254 185
-0.022215 -0.021813 2.005385 225 255 185
-0.020119 -0.021813 2.005385 225 254 187
-0.018022 -0.021813 2.005385 222 253 185
-0.015926 -0.021813 2.005385 219 248 181
-0.013829 -0.021813 2.005385 213 244 176
-0.011733 -0.021813 2.005385 209 238 172
-0.009636 -0.021813 2.005385 205 236 169
-0.007630 -0.022073 2.029258 201 231 167
-0.005508 -0.022073 2.029258 201 231 167
-0.003387 -0.022073 2.029258 200 230 166
-0.001250 -0.021813 2.005385 197 227 163
0.000846 -0.021813 2.005385 194 224 160
0.002942 -0.021813 2.005385 189 219 155
0.005039 -0.021813 2.005385 185 215 151
0.007220 -0.022073 2.029258 183 213 149
0.009342 -0.022073 2.029258 166 196 132
0.011463 -0.022073 2.029258 160 190 126
0.013585 -0.022073 2.029258 150 180 116
0.015706 -0.022073 2.029258 137 167 103
0.017827 -0.022073 2.029258 124 154 90
0.019949 -0.022073 2.029258 115 145 81
0.022070 -0.022073 2.029258 109 139 75
0.024192 -0.022073 2.029258 106 136 76
0.026313 -0.022073 2.029258 115 142 87
0.028435 -0.022073 2.029258 122 149 96
0.030556 -0.022073 2.029258 136 163 112
0.032677 -0.022073 2.029258 154 181 128
0.034799 -0.022073 2.029258 174 201 148
0.036920 -0.022073 2.029258 194 221 168
0.039042 -0.022073 2.029258 211 238 185
0.041163 -0.022073 2.029258 221 248 195
0.043284 -0.022073 2.029258 223 247 195
0.045406 -0.022073 2.029258 222 249 196
0.047527 -0.022073 2.029258 227 251 199
0.049649 -0.022073 2.029258 229 255 201
0.051770 -0.022073 2.029258 233 255 205
0.053892 -0.022073 2.029258 231 255 201
0.056013 -0.022073 2.029258 224 248 196
0.058134 -0.022073 2.029258 220 243 191
0.060256 -0.022073 2.029258 208 230 181
0.062377 -0.022073 2.029258 196 218 169
0.065671 -0.022474 2.066154 178 202 152
0.067831 -0.022474 2.066154 161 188 135
0.069991 -0.022474 2.066154 151 180 124
0.072151 -0.022474 2.066154 146 177 118
0.074311 -0.022474 2.066154 144 178 118
0.076471 -0.022474 2.066154 144 180 118
0.078631 -0.022474 2.066154 145 181 119
0.080791 -0.022474 2.066154 146 182 121
0.082951 -0.022474 2.066154 147 183 122
0.085111 -0.022474 2.066154 146 179 122
0.087271 -0.022474 2.066154 143 173 121
0.089431 -0.022474 2.066154 139 169 117
0.092715 -0.022750 2.091506 138 166 117
0.094902 -0.022750 2.091506 138 164 116
0.097088 -0.022750 2.091506 136 163 112
0.099275 -0.022750 2.091506 129 156 105
0.101461 -0.022750 2.091506 120 148 99
0.104935 -0.023032 2.117487 111 141 91
0.107149 -0.023032 2.117487 104 133 85
0.111439 -0.023470 2.157693 100 132 83
0.113695 -0.023470 2.157693 109 142 95
0.115950 -0.023470 2.157693 118 154 106
0.118206 -0.023470 2.157693 148 186 139
0.120462 -0.023470 2.157693 159 198 151
0.124291 -0.023771 2.185355 170 212 166
0.126575 -0.023771 2.185355 174 217 171
0.128860 -0.023771 2.185355 172 215 170
0.131144 -0.023771 2.185355 167 213 167
0.135162 -0.024079 2.213737 167 212 169
0.753978 -0.031967 2.938926 160 202 156
0.744219 -0.031426 2.889114 159 201 155
0.728713 -0.030646 2.817483 159 201 155
0.731658 -0.030646 2.817483 159 201 155
0.734604 -0.030646 2.817483 159 201 155
0.737549 -0.030646 2.817483 160 202 156
0.743440 -0.030646 2.817483 158 201 158
0.815303 -0.027067 2.488434 153 197 148
0.806136 -0.026678 2.452629 151 194 148
1.070302 -0.028525 2.622426 134 174 137
1.056785 -0.028093 2.582693 133 173 136
1.035941 -0.027468 2.525299 134 174 137
1.062185 -0.028093 2.582693 135 175 138
1.041221 -0.027468 2.525299 135 175 140
1.043861 -0.027468 2.525299 134 174 139
1.070285 -0.028093 2.582693 139 176 142
1.072985 -0.028093 2.582693 140 177 143
1.075685 -0.028093 2.582693 140 180 145
1.088740 -0.027468 2.525299 142 184 144
1.075448 -0.027067 2.488434 142 184 144
1.078049 -0.027067 2.488434 142 184 144
1.080651 -0.027067 2.488434 141 183 143
1.067666 -0.026678 2.452629 140 182 142
1.070230 -0.026678 2.452629 138 180 140
1.072794 -0.026678 2.452629 137 179 139
1.399727 -0.025399 2.335037 141 183 147
-0.618529 -0.018316 1.862926 186 246 186
-0.616582 -0.018316 1.862926 185 244 186
-0.614634 -0.018316 1.862926 188 247 191
-0.609357 -0.018216 1.852801 186 245 191
-0.607420 -0.018216 1.852801 185 241 192
-0.608792 -0.018316 1.862926 186 239 195
-0.606844 -0.018316 1.862926 181 232 191
-0.604897 -0.018316 1.862926 155 203 165
-0.602949 -0.018316 1.862926 105 150 117
-0.601001 -0.018316 1.862926 67 104 73
-0.599054 -0.018316 1.862926 58 73 54
-0.597106 -0.018316 1.862926 55 62 46
-0.595159 -0.018316 1.862926 49 55 41
-0.593211 -0.018316 1.862926 46 52 40
-0.588050 -0.018216 1.852801 40 48 37
-0.586113 -0.018216 1.852801 33 40 32
-0.584177 -0.018216 1.852801 29 36 29
-0.582240 -0.018216 1.852801 27 37 29
-0.580303 -0.018216 1.852801 30 39 34
-0.578366 -0.018216 1.852801 29 38 33
-0.573313 -0.018118 1.842786 29 39 31
-0.571386 -0.018118 1.842786 34 41 34
-0.566398 -0.018021 1.832879 36 43 35
-0.564482 -0.018021 1.832879 38 45 37
-0.565607 -0.018118 1.842786 38 46 35
-0.563681 -0.018118 1.842786 39 45 35
-0.561754 -0.018118 1.842786 42 43 35
-0.562870 -0.018216 1.852801 43 42 37
-0.560933 -0.018216 1.852801 43 42 37
-0.562051 -0.018316 1.862926 42 43 37
-0.560103 -0.018316 1.862926 44 45 40
-0.558156 -0.018316 1.862926 44 46 41
-0.556208 -0.018316 1.862926 44 45 40
-0.554261 -0.018316 1.862926 41 43 38
-0.556447 -0.018518 1.883511 37 39 34
-0.551431 -0.018417 1.873162 38 40 35
-0.552509 -0.018518 1.883511 41 43 38
-0.547515 -0.018417 1.873162 44 45 40
-0.542575 -0.018316 1.862926 42 43 38
-0.540628 -0.018316 1.862926 39 40 35
-0.541640 -0.018417 1.873162 35 36 30
-0.539682 -0.018417 1.873162 35 37 26
-0.534785 -0.018316 1.862926 35 38 27
-0.532838 -0.018316 1.862926 34 40 30
-0.530890 -0.018316 1.862926 35 42 34
-0.528943 -0.018316 1.862926 37 44 37
-0.524131 -0.018216 1.852801 37 47 39
-0.522194 -0.018216 1.852801 37 48 42
-0.520257 -0.018216 1.852801 38 49 43
-0.518320 -0.018216 1.852801 33 44 38
-0.516383 -0.018216 1.852801 36 45 40
-0.514446 -0.018216 1.852801 39 49 41
-0.512509 -0.018216 1.852801 42 49 41
-0.510573 -0.018216 1.852801 39 45 35
-0.508636 -0.018216 1.852801 39 45 31
-0.506699 -0.018216 1.852801 51 55 41
-0.504762 -0.018216 1.852801 61 68 52
-0.502825 -0.018216 1.852801 77 89 69
-0.500888 -0.018216 1.852801 86 100 77
-0.498951 -0.018216 1.852801 81 93 73
-0.497014 -0.018216 1.852801 54 65 48
-0.495077 -0.018216 1.852801 35 43 28
-0.493140 -0.018216 1.852801 30 36 24
-0.491203 -0.018216 1.852801 28 34 22
-0.491940 -0.018316 1.862926 24 27 18
-0.492684 -0.018417 1.873162 30 31 23
-0.490726 -0.018417 1.873162 37 37 29
-0.488768 -0.018417 1.873162 37 36 31
-0.486810 -0.018417 1.873162 39 36 29
-0.487530 -0.018518 1.883511 40 37 32
-0.485561 -0.018518 1.883511 39 34 28
-0.483592 -0.018518 1.883511 54 49 43
-0.481623 -0.018518 1.883511 80 81 67
-0.479654 -0.018518 1.883511 91 101 74
-0.480339 -0.018621 1.893975 84 99 66
-0.489990 -0.019153 1.948088 75 91 64
-0.487953 -0.019153 1.948088 69 87 63
-0.485916 -0.019153 1.948088 61 79 57
-0.483880 -0.019153 1.948088 48 65 46
-0.481843 -0.019153 1.948088 38 55 37
-0.479807 -0.019153 1.948088 42 59 41
-0.477770 -0.019153 1.948088 48 63 44
-0.475734 -0.019153 1.948088 58 73 52
-0.473697 -0.019153 1.948088 75 89 64
-0.471661 -0.019153 1.948088 101 111 84
-0.489192 -0.019951 2.029258 129 140 108
-0.487070 -0.019951 2.029258 156 166 132
-0.484949 -0.019951 2.029258 170 185 144
-0.491606 -0.020314 2.066154 181 204 152
-0.489446 -0.020314 2.066154 184 212 154
-0.487286 -0.020314 2.066154 188 216 158
-0.485126 -0.020314 2.066154 183 212 154
-0.482966 -0.020314 2.066154 178 207 151
-0.480806 -0.020314 2.066154 174 205 148
-0.478646 -0.020314 2.066154 172 203 146
-0.476486 -0.020314 2.066154 167 200 145
-0.480146 -0.020563 2.091506 165 200 144
-0.477960 -0.020563 2.091506 161 198 144
-0.391047 -0.018518 1.883511 168 197 143
-0.389078 -0.018518 1.883511 169 198 144
-0.384982 -0.018417 1.873162 171 200 146
-0.383023 -0.018417 1.873162 166 197 140
-0.381065 -0.018417 1.873162 167 198 139
-0.381201 -0.018518 1.883511 166 197 138
-0.392860 -0.019487 1.982066 152 180 129
-0.390788 -0.019487 1.982066 152 180 131
-0.388716 -0.019487 1.982066 151 177 129
-0.386643 -0.019487 1.982066 140 166 119
-0.377979 -0.019153 1.948088 124 150 105
-0.371694 -0.018937 1.926076 110 135 93
-0.369681 -0.018937 1.926076 104 127 85
-0.367667 -0.018937 1.926076 104 127 85
-0.365654 -0.018937 1.926076 109 131 92
-0.359577 -0.018725 1.904555 114 135 96
-0.357586 -0.018725 1.904555 115 131 94
-0.355562 -0.019487 1.982066 135 164 120
-0.353490 -0.019487 1.982066 127 155 114
-0.351418 -0.019487 1.982066 119 145 106
-0.343357 -0.019153 1.948088 115 141 104
-0.341321 -0.019153 1.948088 111 135 101
-0.339284 -0.019153 1.948088 105 129 97
-0.333437 -0.018937 1.926076 105 125 97
-0.335211 -0.019153 1.948088 107 128 95
-0.329410 -0.018937 1.926076 110 132 93
-0.327396 -0.018937 1.926076 112 135 91
-0.325383 -0.018937 1.926076 115 138 94
-0.323369 -0.018937 1.926076 118 141 95
-0.321355 -0.018937 1.926076 120 143 99
-0.328625 -0.019487 1.982066 123 149 102
-0.326553 -0.019487 1.982066 128 154 109
-0.328298 -0.019717 2.005385 131 159 111
-0.311232 -0.020819 2.117487 198 230 181
-0.305227 -0.020563 2.091506 208 237 189
-0.303040 -0.020563 2.091506 206 238 189
-0.300854 -0.020563 2.091506 209 239 189
-0.298667 -0.020563 2.091506 209 242 189
-0.296481 -0.020563 2.091506 215 245 191
-0.294294 -0.020563 2.091506 217 251 191
-0.288567 -0.020314 2.066154 222 253 194
-0.281293 -0.019951 2.029258 224 255 196
-0.279171 -0.019951 2.029258 220 251 194
-0.277050 -0.019951 2.029258 222 251 197
-0.271694 -0.019717 2.005385 224 253 199
-0.266463 -0.019487 1.982066 225 254 200
-0.259858 -0.019153 1.948088 226 255 201
-0.254908 -0.018937 1.926076 226 253 200
-0.252895 -0.018937 1.926076 226 253 200
-0.248078 -0.018725 1.904555 225 252 197
-0.246087 -0.018725 1.904555 232 255 200
-0.242740 -0.018621 1.893975 228 254 193
-0.240760 -0.018621 1.893975 225 251 188
-0.238780 -0.018621 1.893975 227 254 187
-0.236800 -0.018621 1.893975 232 255 189
-0.233523 -0.018518 1.883511 234 255 189
-0.231554 -0.018518 1.883511 231 255 184
-0.229584 -0.018518 1.883511 228 254 183
-0.227615 -0.018518 1.883511 231 255 193
-0.225646 -0.018518 1.883511 230 254 194
-0.223677 -0.018518 1.883511 230 254 194
-0.221708 -0.018518 1.883511 230 254 194
-0.219739 -0.018518 1.883511 229 253 193
-0.217770 -0.018518 1.883511 228 253 195
-0.215801 -0.018518 1.883511 228 253 195
-0.213832 -0.018518 1.883511 228 252 194
-0.211863 -0.018518 1.883511 236 255 201
-0.208741 -0.018417 1.873162 236 255 199
-0.206782 -0.018417 1.873162 238 253 198
-0.203705 -0.018316 1.862926 238 251 195
-0.201757 -0.018316 1.862926 239 250 194
-0.213394 -0.020563 2.091506 240 251 209
-0.208647 -0.020314 2.066154 239 252 208
-0.206487 -0.020314 2.066154 239 252 208
-0.200679 -0.019951 2.029258 237 253 208
-0.198557 -0.019951 2.029258 238 254 209
-0.194125 -0.019717 2.005385 237 254 209
-0.166575 -0.018518 1.883511 241 250 207
-0.163701 -0.018417 1.873162 234 254 193
-0.160859 -0.018316 1.862926 230 255 187
-0.158912 -0.018316 1.862926 228 253 185
-0.155620 -0.018621 1.893975 227 254 187
-0.152791 -0.018518 1.883511 228 255 188
-0.150822 -0.018518 1.883511 226 255 188
-0.148853 -0.018518 1.883511 229 255 189
-0.146077 -0.018417 1.873162 226 255 188
-0.140616 -0.018216 1.852801 224 255 187
-0.136742 -0.018216 1.852801 222 253 186
-0.134805 -0.018216 1.852801 222 253 186
-0.131132 -0.018518 1.883511 224 254 184
-0.129163 -0.018518 1.883511 223 252 185
-0.127194 -0.018518 1.883511 228 254 189
-0.113960 -0.018937 1.926076 237 255 210
-0.111946 -0.018937 1.926076 234 255 207
-0.109933 -0.018937 1.926076 230 253 201
-0.107919 -0.018937 1.926076 225 248 196
-0.105906 -0.018937 1.926076 222 245 191
-0.103892 -0.018937 1.926076 211 231 178
-0.101878 -0.018937 1.926076 204 224 171
-0.099865 -0.018937 1.926076 191 211 160
-0.097851 -0.018937 1.926076 174 197 145
-0.095838 -0.018937 1.926076 159 183 133
-0.093824 -0.018937 1.926076 145 172 121
-0.091811 -0.018937 1.926076 136 162 114
-0.089797 -0.018937 1.926076 131 159 110
-0.087784 -0.018937 1.926076 131 157 110
-0.072865 -0.018725 1.904555 111 123 85
-0.070874 -0.018725 1.904555 132 144 106
-0.068501 -0.018621 1.893975 136 151 108
-0.066521 -0.018621 1.893975 135 153 105
-0.064541 -0.018621 1.893975 130 153 99
-0.062561 -0.018621 1.893975 139 167 106
-0.060581 -0.018621 1.893975 169 201 134
-0.058601 -0.018621 1.893975 200 236 162
-0.056621 -0.018621 1.893975 217 255 177
-0.054641 -0.018621 1.893975 217 255 177
-0.052661 -0.018621 1.893975 219 255 176
-0.050681 -0.018621 1.893975 222 255 179
-0.048701 -0.018621 1.893975 225 255 180
-0.046463 -0.018518 1.883511 228 254 183
-0.047373 -0.019717 2.005385 231 252 183
-0.044750 -0.019487 1.982066 231 250 186
-0.043180 -0.019717 2.005385 230 251 184
-0.041083 -0.019717 2.005385 227 253 180
-0.038987 -0.019717 2.005385 226 254 179
-0.036890 -0.019717 2.005385 226 254 180
-0.034794 -0.019717 2.005385 226 254 180
-0.032697 -0.019717 2.005385 227 255 181
-0.030601 -0.019717 2.005385 226 255 182
-0.028504 -0.019717 2.005385 227 255 185
-0.026408 -0.019717 2.005385 228 255 186
-0.024312 -0.019717 2.005385 223 253 183
-0.022215 -0.019717 2.005385 222 253 183
-0.020119 -0.019717 2.005385 222 253 185
-0.018022 -0.019717 2.005385 219 250 182
-0.015926 -0.019717 2.005385 214 245 177
